ply
format ascii 1.0
element vertex 1008
property float x
property float y
property float z
property float nx
property float ny
property float nz
property uchar red
property uchar green
property uchar blue
end_header
0.150 -0.750 0.002 0.008 0.160 -0.987 43 74 167
0.150 -0.740 0.004 0.022 0.047 -0.999 51 86 187
0.150 -0.730 0.003 -0.046 -0.080 -0.996 56 92 197
0.150 -0.720 0.003 -0.013 -0.003 -1.000 54 93 198
0.150 -0.710 0.004 -0.019 -0.021 -1.000 50 89 190
0.150 -0.700 0.002 0.013 -0.002 -1.000 41 80 176
0.150 -0.690 0.004 0.009 0.106 -0.994 35 70 162
0.150 -0.680 0.004 -0.044 -0.011 -0.999 30 63 150
0.150 -0.670 0.004 0.036 -0.057 -0.998 30 58 138
0.150 -0.660 0.003 -0.094 -0.064 -0.994 29 56 129
0.150 -0.650 0.002 -0.017 0.060 -0.998 27 52 119
0.150 -0.640 0.003 0.030 0.065 -0.997 24 48 110
0.150 -0.630 0.003 0.000 0.029 -1.000 22 46 108
0.150 -0.620 0.004 0.070 -0.018 -0.997 24 47 117
0.150 -0.610 0.003 -0.064 -0.015 -0.998 26 50 125
0.150 -0.600 0.004 0.020 -0.022 -1.000 33 62 143
0.150 -0.590 0.003 0.000 0.021 -1.000 37 68 154
0.150 -0.580 0.003 0.018 0.063 -0.998 39 70 158
0.150 -0.570 0.004 -0.031 0.008 -0.999 38 70 158
0.150 -0.560 0.004 -0.031 -0.047 -0.998 36 67 155
0.150 -0.550 0.003 -0.040 -0.011 -0.999 32 63 149
0.150 -0.540 0.003 0.044 -0.031 -0.999 30 61 144
0.150 -0.530 0.003 -0.030 0.042 -0.999 30 59 141
0.150 -0.520 0.004 0.009 0.056 -0.998 31 59 138
0.150 -0.510 0.004 -0.046 -0.054 -0.997 31 59 138
0.150 -0.500 0.003 -0.138 -0.043 -0.989 31 58 138
0.150 -0.490 0.003 -0.037 -0.065 -0.997 30 58 136
0.150 -0.480 0.002 -0.011 0.055 -0.998 30 58 134
0.150 -0.470 0.004 -0.017 0.065 -0.998 27 56 129
0.150 -0.460 0.004 0.023 -0.016 -1.000 25 54 127
0.150 -0.450 0.003 -0.046 -0.032 -0.998 22 51 123
0.150 -0.440 0.003 0.033 -0.055 -0.998 22 48 122
0.150 -0.430 0.002 -0.007 -0.016 -1.000 20 46 120
0.150 -0.420 0.003 -0.010 0.156 -0.988 19 45 120
0.150 -0.410 0.004 0.033 -0.017 -0.999 22 47 124
0.150 -0.400 0.003 0.030 -0.021 -0.999 25 52 131
0.150 -0.390 0.003 -0.047 -0.005 -0.999 31 61 142
0.150 -0.380 0.003 0.018 -0.017 -1.000 36 68 151
0.150 -0.370 0.003 0.045 0.010 -0.999 40 72 161
0.150 -0.360 0.003 0.023 0.021 -1.000 40 73 164
0.150 -0.350 0.003 0.001 0.002 -1.000 37 71 162
0.150 -0.340 0.003 -0.052 -0.023 -0.998 32 68 159
0.150 -0.330 0.003 0.016 -0.021 -1.000 28 65 157
0.150 -0.320 0.003 -0.013 -0.001 -1.000 26 62 152
0.150 -0.310 0.004 0.034 0.040 -0.999 26 63 152
0.150 -0.300 0.003 0.010 0.005 -1.000 29 66 156
0.150 -0.290 0.004 -0.125 -0.006 -0.992 32 70 160
0.150 -0.280 0.003 0.037 -0.094 -0.995 36 73 169
0.150 -0.270 0.001 0.022 0.142 -0.990 41 79 174
0.150 -0.260 0.004 0.007 0.077 -0.997 47 84 181
0.150 -0.250 0.004 -0.032 0.044 -0.999 52 88 185
0.150 -0.240 0.004 -0.029 -0.081 -0.996 53 91 187
0.150 -0.230 0.003 0.038 0.033 -0.999 59 95 190
0.143 -0.230 0.070 0.717 0.678 0.164 30 29 40
0.150 -0.233 0.070 0.429 0.881 0.198 27 21 18
0.150 -0.230 0.063 0.471 0.741 0.478 24 19 15
0.147 -0.230 0.080 0.618 0.777 -0.119 38 30 25
0.150 -0.232 0.080 0.415 0.903 -0.107 38 30 25
0.147 -0.230 0.090 0.486 0.874 -0.016 32 22 18
0.150 -0.231 0.090 0.376 0.926 -0.031 32 22 18
0.147 -0.230 0.100 0.475 0.756 -0.450 36 31 27
0.150 -0.231 0.100 0.404 0.873 -0.275 36 31 27
0.150 -0.230 0.102 0.276 0.648 -0.710 36 31 27
0.150 -0.220 0.004 0.011 0.082 -0.997 55 89 178
0.143 -0.220 0.050 0.572 0.687 0.448 32 24 21
0.150 -0.224 0.050 0.436 0.823 0.365 27 22 18
0.150 -0.220 0.042 0.516 0.667 0.538 28 30 45
0.150 -0.228 0.060 0.448 0.793 0.412 24 19 15
0.150 -0.220 0.108 0.120 0.521 -0.845 52 41 36
0.148 -0.220 0.120 0.897 0.369 -0.243 38 29 25
0.150 -0.222 0.120 0.315 0.909 -0.274 38 29 25
0.150 -0.220 0.115 0.354 0.755 0.552 52 41 36
0.150 -0.220 0.123 0.296 0.428 -0.854 38 29 25
0.150 -0.210 0.006 -0.011 0.059 -0.998 39 68 140
0.143 -0.210 0.040 0.311 0.594 0.742 43 45 62
0.150 -0.217 0.040 0.575 0.449 0.684 28 30 45
0.150 -0.210 0.036 0.255 0.305 0.918 42 38 37
0.150 -0.216 0.060 -0.417 -0.906 0.068 22 18 16
0.144 -0.210 0.060 -0.846 0.519 0.125 49 40 35
0.150 -0.210 0.054 -0.470 0.007 -0.883 54 37 33
0.150 -0.210 0.065 -0.415 -0.033 0.909 37 30 26
0.145 -0.210 0.080 -0.968 -0.065 -0.242 33 22 17
0.150 -0.210 0.075 -0.424 -0.041 -0.905 37 30 26
0.150 -0.217 0.080 0.123 -0.952 -0.281 39 30 26
0.150 -0.216 0.090 -0.161 -0.943 0.290 29 23 20
0.144 -0.210 0.090 -0.961 0.215 0.172 30 24 21
0.150 -0.210 0.095 -0.070 -0.090 0.993 34 30 24
0.150 -0.217 0.110 0.220 0.967 -0.127 52 41 36
0.142 -0.210 0.120 0.694 0.613 -0.377 47 37 34
0.150 -0.211 0.130 0.486 0.477 -0.732 39 32 29
0.149 -0.210 0.130 0.666 0.391 -0.636 39 32 29
0.150 -0.210 0.131 0.399 0.432 -0.809 39 32 29
0.150 -0.200 0.005 0.050 -0.060 -0.997 34 60 131
0.141 -0.200 0.030 -0.161 0.528 0.834 33 22 16
0.150 -0.207 0.030 0.312 0.892 0.328 53 57 86
0.150 -0.200 0.023 0.182 0.467 0.865 34 47 88
0.143 -0.204 0.034 0.549 0.551 0.628 33 22 16
0.150 -0.207 0.040 -0.293 -0.828 0.478 42 38 37
0.146 -0.200 0.040 -0.314 0.925 -0.212 25 21 18
0.150 -0.200 0.036 -0.262 0.285 -0.922 25 21 18
0.150 -0.200 0.045 -0.523 0.031 0.852 75 60 55
0.150 -0.205 0.060 -0.519 0.852 0.063 85 76 73
0.150 -0.202 0.080 -0.483 0.810 -0.332 53 32 24
0.150 -0.202 0.090 0.045 0.912 0.407 63 48 42
0.148 -0.200 0.140 0.726 0.568 -0.389 40 34 32
0.150 -0.202 0.140 0.365 0.815 -0.451 40 34 32
0.150 -0.200 0.145 0.512 0.768 -0.385 40 34 32
0.150 -0.190 0.004 0.182 -0.082 -0.980 21 46 110
0.150 -0.194 0.020 0.270 0.275 0.923 36 23 16
0.150 -0.190 0.016 0.287 0.207 0.935 36 23 16
0.150 -0.195 0.040 -0.773 0.511 -0.377 67 44 37
0.144 -0.190 0.040 0.951 -0.031 -0.307 55 37 33
0.150 -0.190 0.059 -0.316 -0.893 -0.321 77 68 64
0.150 -0.190 0.060 -0.445 -0.745 -0.498 77 68 64
0.150 -0.198 0.070 0.188 -0.885 -0.426 76 69 66
0.150 -0.194 0.080 0.421 -0.871 0.255 55 45 44
0.150 -0.195 0.090 -0.042 -0.946 0.320 63 48 42
0.150 -0.190 0.095 0.395 -0.664 0.634 66 62 59
0.149 -0.190 0.110 -0.375 -0.848 0.374 64 52 47
0.150 -0.190 0.108 -0.361 -0.841 -0.402 64 52 47
0.150 -0.191 0.110 -0.881 -0.293 0.372 64 52 47
0.150 -0.190 0.111 -0.662 -0.379 0.647 64 52 47
0.147 -0.190 0.150 0.600 0.522 -0.607 44 37 32
0.150 -0.195 0.150 0.612 0.495 -0.617 40 28 21
0.150 -0.190 0.152 0.445 0.549 -0.708 44 37 32
0.150 -0.180 0.004 -0.168 0.038 -0.985 17 42 104
0.150 -0.180 0.015 -0.206 0.020 0.978 38 33 28
0.148 -0.180 0.030 0.893 -0.060 -0.447 61 50 46
0.144 -0.180 0.040 0.412 -0.857 -0.309 67 52 48
0.150 -0.188 0.050 -0.180 -0.868 -0.463 82 72 69
0.150 -0.180 0.043 -0.133 -0.535 -0.834 76 66 62
0.150 -0.187 0.100 0.170 -0.982 -0.084 78 64 64
0.150 -0.182 0.120 -0.070 -0.602 0.795 58 68 106
0.146 -0.180 0.120 -0.249 -0.517 0.819 58 68 106
0.150 -0.180 0.122 -0.253 -0.266 0.930 58 68 106
0.150 -0.180 0.156 0.427 0.381 -0.820 44 35 32
0.150 -0.172 0.010 -0.515 -0.759 -0.398 38 29 25
0.147 -0.170 0.020 0.686 0.382 -0.619 38 29 24
0.150 -0.170 0.016 -0.097 0.313 -0.945 38 29 24
0.150 -0.172 0.020 0.936 0.229 0.268 38 29 24
0.150 -0.170 0.025 0.417 -0.704 0.576 38 29 24
0.148 -0.170 0.030 0.360 -0.867 -0.345 60 36 28
0.150 -0.170 0.033 0.266 -0.687 -0.677 60 36 28
0.150 -0.175 0.040 -0.021 -0.682 -0.731 76 66 62
0.150 -0.175 0.130 0.029 -0.872 0.489 36 30 26
0.150 -0.170 0.135 0.005 -0.268 0.963 62 48 42
0.144 -0.170 0.150 0.519 0.843 -0.141 53 39 32
0.150 -0.176 0.160 0.684 0.614 -0.395 44 35 32
0.142 -0.170 0.170 0.230 0.695 -0.681 40 32 26
0.150 -0.172 0.170 0.235 0.830 -0.505 42 33 28
0.150 -0.170 0.172 0.172 0.607 -0.776 42 33 28
0.150 -0.160 0.017 0.363 0.115 -0.925 22 16 12
0.150 -0.168 0.030 0.446 -0.827 -0.341 60 36 28
0.145 -0.160 0.140 0.649 -0.626 0.432 59 45 42
0.150 -0.160 0.135 0.137 -0.266 0.954 59 45 42
0.150 -0.160 0.145 0.089 -0.418 -0.904 59 45 42
0.150 -0.168 0.150 0.238 -0.948 -0.210 60 47 44
0.150 -0.160 0.156 -0.232 -0.393 0.890 35 28 23
0.146 -0.160 0.180 0.649 0.120 -0.751 35 27 22
0.150 -0.163 0.180 -0.013 0.754 -0.657 35 27 22
0.150 -0.160 0.184 0.439 0.659 -0.611 35 27 22
0.146 -0.150 0.010 0.776 -0.457 -0.436 40 30 25
0.150 -0.150 0.017 0.580 -0.256 -0.774 39 26 19
0.150 -0.155 0.140 0.395 -0.901 -0.180 59 45 42
0.150 -0.156 0.160 0.169 -0.758 0.630 35 28 23
0.146 -0.150 0.170 0.740 -0.624 0.251 41 32 26
0.150 -0.150 0.166 -0.014 -0.463 0.886 41 32 26
0.146 -0.150 0.180 0.983 -0.152 -0.099 44 33 29
0.150 -0.154 0.190 0.651 0.456 -0.606 40 32 27
0.148 -0.150 0.190 0.914 0.089 -0.395 40 32 27
0.150 -0.150 0.192 0.311 0.146 -0.939 40 32 27
0.150 -0.140 0.001 0.039 -0.583 -0.812 27 53 118
0.150 -0.146 0.010 0.466 -0.830 -0.305 40 30 25
0.150 -0.146 0.170 0.423 -0.810 0.407 41 32 26
0.150 -0.141 0.180 0.148 -0.880 0.451 48 36 34
0.150 -0.140 0.184 0.556 -0.803 0.215 48 36 34
0.148 -0.140 0.190 0.738 -0.674 -0.032 41 30 25
0.150 -0.140 0.192 0.573 -0.269 -0.774 41 30 25
0.150 -0.130 0.002 0.220 -0.005 -0.976 32 58 127
0.150 -0.139 0.190 0.063 -0.997 -0.051 41 30 25
0.140 -0.130 0.210 -0.790 0.612 0.044 70 46 15
0.141 -0.130 0.310 -0.892 0.440 -0.104 64 42 18
0.140 -0.130 0.380 -0.790 0.576 0.210 86 58 19
0.142 -0.130 0.390 -0.826 0.548 0.135 31 27 24
0.144 -0.130 0.400 -0.851 0.477 -0.218 51 40 29
0.150 -0.120 0.002 -0.055 0.042 -0.998 40 66 138
0.145 -0.120 0.140 -0.890 -0.456 0.000 37 24 16
0.143 -0.120 0.160 -0.869 -0.432 0.240 40 28 21
0.143 -0.120 0.170 -0.960 0.280 0.002 47 33 23
0.143 -0.120 0.180 -0.995 -0.094 0.011 63 41 14
0.143 -0.120 0.190 -0.965 -0.260 0.025 63 41 14
0.144 -0.120 0.200 -0.921 0.372 0.114 66 44 14
0.146 -0.120 0.210 -0.983 0.167 0.080 70 46 14
0.145 -0.120 0.220 -0.908 0.420 0.003 78 51 16
0.147 -0.120 0.230 -0.916 0.381 0.129 74 49 16
0.147 -0.120 0.240 -0.879 0.477 0.016 75 49 14
0.146 -0.120 0.250 -0.798 0.596 -0.089 84 56 16
0.146 -0.120 0.260 -0.804 0.592 -0.060 64 36 11
0.144 -0.120 0.270 -0.818 0.568 -0.090 71 47 14
0.144 -0.120 0.280 -0.901 0.434 0.021 70 46 13
0.145 -0.120 0.290 -0.903 0.427 0.051 72 48 14
0.145 -0.120 0.300 -0.915 0.402 0.020 71 46 14
0.145 -0.120 0.310 -0.890 0.449 -0.079 66 42 14
0.143 -0.120 0.320 -0.864 0.478 -0.160 66 63 62
0.142 -0.120 0.330 -0.796 0.523 -0.305 59 54 54
0.142 -0.120 0.360 -0.716 0.375 0.589 52 45 41
0.142 -0.120 0.370 -0.843 0.496 0.207 46 36 30
0.146 -0.120 0.380 -0.867 0.425 0.259 71 49 21
0.148 -0.120 0.390 -0.831 0.497 0.251 16 13 11
0.150 -0.120 0.395 -0.775 0.560 0.293 16 13 11
0.150 -0.123 0.400 -0.513 0.438 -0.738 47 38 29
0.150 -0.120 0.401 -0.254 0.143 -0.957 47 38 29
0.150 -0.110 0.003 0.036 -0.019 -0.999 44 71 145
0.150 -0.110 0.148 0.000 -0.254 0.967 44 30 16
0.148 -0.110 0.150 0.683 -0.730 0.000 44 30 16
0.150 -0.112 0.150 0.000 1.000 0.000 44 30 16
0.150 -0.110 0.152 0.000 -0.254 -0.967 44 30 16
0.145 -0.110 0.170 -0.323 -0.595 0.736 44 26 14
0.147 -0.110 0.180 0.961 0.273 -0.041 71 47 15
0.150 -0.113 0.180 -0.595 0.741 0.312 71 47 15
0.150 -0.110 0.177 -0.186 0.435 0.881 71 47 15
0.150 -0.110 0.187 -0.273 0.315 -0.909 71 46 14
0.150 -0.112 0.200 -0.429 0.886 0.179 64 42 14
0.150 -0.110 0.195 -0.514 -0.485 0.708 71 46 14
0.148 -0.110 0.210 -0.691 0.708 -0.142 73 48 15
0.150 -0.110 0.206 -0.887 0.257 -0.384 73 48 15
0.150 -0.110 0.217 -0.533 0.786 0.314 71 47 15
0.150 -0.111 0.220 -0.830 0.528 0.182 71 47 15
0.150 -0.113 0.230 -0.314 0.923 0.223 75 50 16
0.150 -0.116 0.240 -0.809 0.587 0.002 75 49 14
0.150 -0.114 0.250 -0.809 0.588 0.001 79 51 16
0.150 -0.115 0.260 -0.789 0.607 -0.097 64 36 11
0.150 -0.113 0.270 -0.755 0.640 -0.142 55 33 14
0.150 -0.110 0.280 -0.812 0.582 -0.052 68 46 14
0.150 -0.111 0.290 -0.843 0.538 -0.007 69 45 14
0.150 -0.110 0.300 -0.859 0.509 0.053 72 48 14
0.150 -0.112 0.310 -0.901 0.416 -0.122 55 32 13
0.148 -0.110 0.320 -0.833 0.525 -0.177 44 38 36
0.150 -0.110 0.314 -0.864 0.427 -0.268 55 32 13
0.149 -0.110 0.330 -0.808 0.578 -0.112 46 35 32
0.144 -0.110 0.350 -0.942 0.173 0.286 48 38 28
0.147 -0.110 0.360 -0.787 0.531 0.315 53 40 25
0.148 -0.110 0.370 -0.805 0.536 0.256 44 36 31
0.150 -0.110 0.373 -0.670 0.575 0.469 44 36 31
0.150 -0.114 0.380 -0.750 0.615 0.242 76 52 20
0.150 -0.118 0.390 -0.821 0.522 0.230 16 13 11
0.150 -0.110 0.403 -0.190 0.022 -0.981 51 40 32
0.150 -0.100 0.001 0.037 -0.046 -0.998 47 74 150
0.150 -0.108 0.150 0.000 -1.000 0.000 44 30 16
0.150 -0.100 0.165 -0.000 -0.025 1.000 68 45 15
0.145 -0.100 0.170 0.970 -0.136 0.201 68 45 15
0.150 -0.105 0.170 -0.394 0.724 0.567 68 45 15
0.145 -0.100 0.180 0.889 -0.390 -0.238 71 47 15
0.150 -0.100 0.185 0.090 -0.271 -0.958 71 47 15
0.150 -0.108 0.200 -0.535 -0.830 0.157 64 42 14
0.145 -0.100 0.200 -0.758 -0.145 0.636 68 44 14
0.150 -0.108 0.210 -0.851 0.509 0.129 73 48 15
0.150 -0.100 0.207 -0.208 -0.491 0.846 70 46 15
0.146 -0.100 0.220 0.952 0.255 0.170 72 48 16
0.146 -0.100 0.240 0.957 0.044 -0.288 80 52 18
0.146 -0.100 0.250 0.965 -0.010 0.262 69 41 12
0.147 -0.100 0.280 0.942 0.201 -0.269 70 46 14
0.146 -0.100 0.290 0.949 -0.058 0.310 72 47 14
0.150 -0.106 0.320 -0.872 0.483 -0.077 44 38 36
0.150 -0.108 0.330 -0.883 0.416 -0.217 46 35 32
0.150 -0.100 0.334 -0.367 0.388 -0.845 47 40 38
0.150 -0.100 0.349 0.396 0.343 0.852 42 26 18
0.148 -0.100 0.350 -0.059 0.663 0.746 42 26 18
0.150 -0.100 0.350 0.263 0.183 0.947 42 26 18
0.150 -0.107 0.360 -0.526 0.772 0.358 53 40 25
0.150 -0.107 0.370 -0.686 0.666 0.293 44 36 31
0.150 -0.100 0.403 0.028 -0.044 -0.999 56 45 39
0.150 -0.090 0.002 0.041 0.046 -0.998 51 78 154
0.150 -0.095 0.170 0.125 -0.961 0.247 68 45 15
0.150 -0.095 0.180 -0.125 -0.960 -0.252 71 47 15
0.150 -0.097 0.210 -0.039 -0.741 0.670 70 46 15
0.145 -0.090 0.220 0.529 -0.759 0.381 76 51 16
0.150 -0.090 0.215 0.322 -0.413 0.852 76 51 16
0.146 -0.090 0.230 0.985 -0.174 -0.009 74 50 14
0.146 -0.090 0.240 0.929 -0.369 0.004 80 54 17
0.145 -0.090 0.250 0.950 -0.313 0.008 80 51 14
0.146 -0.090 0.260 0.964 -0.266 -0.018 61 31 12
0.146 -0.090 0.270 0.954 -0.299 -0.006 48 24 10
0.146 -0.090 0.280 0.920 -0.391 0.023 71 46 16
0.145 -0.090 0.290 0.726 -0.612 -0.312 70 46 15
0.150 -0.097 0.300 0.088 -0.959 -0.268 68 44 16
0.150 -0.090 0.295 0.353 -0.405 -0.843 70 46 15
0.150 -0.096 0.310 -0.284 -0.935 0.213 48 22 8
0.150 -0.090 0.316 0.189 -0.458 0.869 47 36 34
0.150 -0.096 0.340 -0.119 0.961 -0.250 22 17 16
0.146 -0.090 0.360 0.943 0.058 -0.329 39 29 24
0.146 -0.090 0.370 0.901 -0.434 -0.006 54 38 20
0.146 -0.090 0.380 0.883 -0.429 0.192 54 38 20
0.145 -0.090 0.400 0.260 -0.144 -0.955 108 73 30
0.150 -0.090 0.402 0.081 -0.131 -0.988 55 47 44
0.150 -0.080 0.003 -0.039 0.083 -0.996 46 73 148
0.150 -0.085 0.220 0.201 -0.943 0.267 76 51 16
0.150 -0.086 0.230 0.353 -0.936 -0.007 74 50 14
0.150 -0.086 0.240 0.265 -0.964 0.008 80 54 17
0.150 -0.085 0.250 0.368 -0.930 -0.002 80 51 14
0.150 -0.086 0.260 0.385 -0.923 -0.026 61 31 12
0.150 -0.086 0.270 0.402 -0.916 0.011 48 24 10
0.150 -0.086 0.280 0.200 -0.980 0.017 71 46 16
0.150 -0.085 0.290 0.233 -0.863 -0.447 70 46 15
0.150 -0.086 0.320 -0.073 -0.755 0.652 47 36 34
0.150 -0.080 0.326 0.224 -0.254 0.941 29 22 20
0.146 -0.080 0.340 0.865 -0.441 -0.238 23 14 11
0.145 -0.080 0.350 0.951 -0.308 0.024 30 26 26
0.145 -0.080 0.360 0.767 -0.562 -0.308 36 28 25
0.150 -0.080 0.365 0.341 -0.405 -0.848 36 28 25
0.150 -0.086 0.370 0.422 -0.895 -0.147 54 38 20
0.150 -0.086 0.380 0.431 -0.902 0.018 54 38 20
0.150 -0.086 0.390 0.137 -0.990 0.017 47 32 19
0.150 -0.085 0.400 0.309 -0.791 -0.528 55 47 44
0.150 -0.070 0.003 0.022 -0.048 -0.999 35 62 131
0.145 -0.070 0.170 0.891 -0.454 0.000 16 14 16
0.150 -0.075 0.170 0.212 0.977 0.000 16 14 16
0.150 -0.070 0.165 0.000 -0.009 1.000 16 14 16
0.150 -0.070 0.175 0.205 -0.009 -0.979 16 14 16
0.145 -0.070 0.330 0.764 -0.610 0.208 16 13 13
0.150 -0.070 0.325 -0.064 -0.132 0.989 16 13 13
0.150 -0.070 0.335 0.231 -0.435 -0.870 16 13 13
0.150 -0.076 0.340 0.127 -0.936 -0.329 23 14 11
0.150 -0.075 0.350 0.375 -0.927 0.020 30 26 26
0.150 -0.075 0.360 0.473 -0.805 -0.359 36 28 25
0.145 -0.070 0.390 -0.863 0.384 0.329 130 93 41
0.150 -0.060 0.003 0.007 0.012 -1.000 33 60 129
0.150 -0.065 0.170 0.000 -1.000 0.000 16 14 16
0.150 -0.065 0.330 0.000 -1.000 0.000 16 13 13
0.150 -0.065 0.390 0.047 0.944 0.326 124 81 23
0.150 -0.060 0.385 0.008 0.034 0.999 124 81 23
0.150 -0.060 0.397 0.077 0.377 -0.923 124 82 25
0.144 -0.060 0.530 -0.849 0.240 0.470 42 20 10
0.144 -0.060 0.540 -0.891 0.324 -0.316 50 28 20
0.150 -0.050 0.002 0.012 0.080 -0.997 22 48 110
0.150 -0.055 0.390 0.005 -0.965 0.262 124 81 23
0.145 -0.050 0.390 -0.884 0.295 0.362 66 43 20
0.141 -0.050 0.520 -0.695 0.319 0.644 34 22 18
0.147 -0.050 0.530 -0.998 0.062 0.003 44 23 15
0.143 -0.050 0.540 -0.912 0.281 -0.298 43 26 20
0.150 -0.040 0.003 -0.024 -0.037 -0.999 20 46 106
0.142 -0.040 0.080 -0.913 0.172 0.370 54 48 44
0.145 -0.040 0.380 0.757 -0.249 0.604 90 54 23
0.150 -0.045 0.380 -0.135 0.984 0.119 90 54 23
0.150 -0.040 0.375 -0.000 -0.015 1.000 90 54 23
0.150 -0.044 0.390 -0.363 0.908 -0.210 49 35 29
0.150 -0.040 0.396 -0.212 0.405 -0.889 109 67 23
0.146 -0.040 0.520 -0.714 0.379 0.588 37 35 47
0.147 -0.040 0.530 -0.945 0.322 0.052 46 23 15
0.145 -0.040 0.540 -0.950 0.297 -0.100 39 25 20
0.145 -0.040 0.550 -0.902 0.375 -0.215 41 26 22
0.150 -0.030 0.003 -0.029 -0.011 -1.000 19 43 102
0.144 -0.030 0.070 -0.976 -0.056 0.213 56 42 40
0.144 -0.030 0.080 -0.853 0.038 -0.521 54 48 44
0.145 -0.030 0.110 0.882 -0.472 0.000 59 46 42
0.150 -0.035 0.110 0.639 0.769 0.000 59 46 42
0.150 -0.030 0.105 0.257 -0.034 0.966 59 46 42
0.150 -0.030 0.115 0.000 -0.035 -0.999 59 46 42
0.150 -0.035 0.380 0.067 -0.751 0.657 90 54 23
0.150 -0.030 0.386 -0.230 -0.324 0.918 92 60 24
0.150 -0.030 0.397 -0.332 -0.099 -0.938 107 68 22
0.150 -0.035 0.520 -0.614 0.723 0.316 37 35 47
0.150 -0.030 0.517 -0.145 0.154 0.977 38 20 12
0.150 -0.033 0.530 -0.708 0.698 -0.110 37 18 13
0.150 -0.033 0.540 -0.761 0.648 0.040 40 24 18
0.150 -0.034 0.550 -0.746 0.518 -0.418 41 23 17
0.143 -0.030 0.560 -0.522 0.321 -0.790 40 20 12
0.150 -0.030 0.553 -0.591 0.434 -0.680 41 23 17
0.150 -0.020 0.002 -0.009 -0.004 -1.000 19 41 100
0.150 -0.020 0.066 0.000 -0.121 0.993 58 54 54
0.146 -0.020 0.070 0.882 -0.318 0.348 58 54 54
0.150 -0.024 0.070 -0.073 0.981 0.181 58 54 54
0.147 -0.020 0.080 0.930 -0.240 -0.279 56 52 52
0.150 -0.023 0.080 0.500 0.672 -0.546 56 52 52
0.150 -0.020 0.083 0.395 -0.064 -0.916 56 52 52
0.150 -0.025 0.110 0.139 -0.990 0.000 59 46 42
0.140 -0.020 0.390 0.678 0.692 0.248 87 48 17
0.150 -0.020 0.386 0.159 0.059 0.985 84 48 19
0.150 -0.020 0.395 0.278 0.025 -0.960 84 48 19
0.146 -0.020 0.520 0.670 0.160 0.725 38 20 12
0.150 -0.020 0.516 0.068 0.084 0.994 38 20 12
0.150 -0.020 0.560 -0.377 0.256 -0.890 41 22 13
0.150 -0.020 0.560 -0.574 0.381 -0.724 41 22 13
0.150 -0.010 0.002 0.063 0.010 -0.998 19 40 100
0.150 -0.016 0.070 0.000 -0.979 0.203 58 54 54
0.150 -0.017 0.080 0.143 -0.853 -0.502 56 52 52
0.150 -0.010 0.385 0.026 -0.013 1.000 104 66 21
0.150 -0.010 0.398 0.168 0.089 -0.982 114 76 23
0.145 -0.010 0.520 0.860 -0.418 0.293 42 27 23
0.150 -0.010 0.515 0.099 -0.288 0.953 42 27 23
0.146 -0.010 0.530 0.999 0.016 -0.051 39 22 16
0.146 -0.010 0.540 0.985 -0.170 -0.008 36 22 18
0.146 -0.010 0.550 0.887 -0.457 0.065 38 20 14
0.150 -0.019 0.560 -0.487 0.251 -0.836 41 22 13
0.150 -0.010 0.562 -0.301 0.233 -0.925 45 27 19
0.150 0.000 0.003 0.033 0.071 -0.997 19 41 100
0.150 0.000 0.387 0.107 0.044 0.993 83 51 22
0.150 0.000 0.396 0.217 -0.067 -0.974 115 80 29
0.150 -0.005 0.520 0.551 -0.615 0.564 42 27 23
0.150 0.000 0.525 0.371 -0.440 0.818 38 19 11
0.145 0.000 0.530 0.657 -0.589 0.471 38 19 11
0.145 0.000 0.540 0.866 -0.425 -0.263 41 26 20
0.150 0.000 0.545 0.363 -0.384 -0.849 41 26 20
0.150 -0.006 0.550 0.534 -0.836 -0.126 38 20 14
0.150 0.000 0.557 0.125 -0.290 0.949 47 28 19
0.150 0.000 0.567 -0.277 0.358 -0.892 44 33 27
0.150 0.010 0.003 -0.059 0.002 -0.998 19 41 102
0.150 0.010 0.385 0.013 0.058 0.998 104 65 22
0.150 0.010 0.398 0.057 0.059 -0.997 110 72 22
0.150 0.005 0.530 0.363 -0.878 0.312 38 19 11
0.150 0.005 0.540 0.482 -0.804 -0.348 41 26 20
0.150 0.010 0.556 0.242 0.096 0.966 43 22 14
0.149 0.010 0.570 -0.305 0.332 -0.893 45 36 30
0.150 0.010 0.570 -0.129 0.376 -0.917 45 36 30
0.150 0.020 0.003 -0.038 -0.006 -0.999 20 42 103
0.150 0.020 0.385 -0.011 -0.004 1.000 115 75 23
0.150 0.020 0.397 -0.041 -0.002 -0.999 120 81 25
0.150 0.020 0.490 0.752 0.209 0.624 35 34 36
0.150 0.020 0.490 0.621 0.620 0.479 35 34 36
0.150 0.020 0.490 0.282 -0.016 0.959 35 34 36
0.150 0.020 0.490 0.728 0.343 -0.594 35 34 36
0.150 0.020 0.555 -0.034 -0.280 0.959 45 22 14
0.150 0.010 0.570 -0.050 0.559 -0.828 45 36 30
0.150 0.020 0.575 -0.111 0.303 -0.947 42 40 33
0.150 0.030 0.002 0.047 -0.013 -0.999 22 44 105
0.150 0.030 0.385 -0.292 -0.001 0.957 120 78 26
0.150 0.030 0.397 -0.400 -0.002 -0.917 130 86 26
0.144 0.030 0.490 0.037 0.492 0.870 38 40 54
0.150 0.022 0.490 0.777 0.080 0.625 35 34 36
0.150 0.030 0.490 0.228 0.715 0.660 36 36 37
0.150 0.024 0.500 0.184 0.982 -0.051 38 36 30
0.147 0.030 0.510 0.745 -0.360 -0.562 43 40 35
0.150 0.025 0.510 0.358 0.826 -0.436 43 40 35
0.150 0.030 0.513 0.253 -0.239 -0.937 43 40 35
0.150 0.025 0.560 -0.079 -0.798 0.597 45 22 14
0.150 0.030 0.567 -0.036 -0.298 0.954 45 37 30
0.148 0.030 0.580 -0.363 0.177 -0.915 53 50 43
0.150 0.030 0.579 -0.467 0.281 -0.839 53 50 43
0.150 0.040 0.004 -0.002 0.060 -0.998 23 45 107
0.150 0.040 0.385 -0.001 -0.340 0.941 126 83 26
0.150 0.040 0.397 0.035 -0.240 -0.970 132 89 27
0.150 0.031 0.490 0.395 0.298 0.869 36 36 37
0.150 0.040 0.488 0.128 -0.256 0.958 40 39 41
0.150 0.040 0.505 0.066 -0.233 -0.970 41 38 32
0.150 0.033 0.510 -0.139 -0.761 -0.633 43 40 35
0.150 0.040 0.565 -0.034 -0.232 0.972 67 61 54
0.150 0.032 0.580 -0.399 0.296 -0.868 53 50 43
0.150 0.040 0.582 -0.199 0.054 -0.979 55 50 43
0.150 0.050 0.004 0.024 0.014 -1.000 24 47 108
0.150 0.045 0.390 -0.033 -0.945 0.325 126 83 26
0.145 0.050 0.390 -0.846 0.437 0.305 137 92 28
0.150 0.042 0.490 0.182 -0.753 0.632 40 39 41
0.147 0.050 0.500 0.844 -0.517 -0.142 41 38 32
0.150 0.050 0.497 0.053 -0.395 0.917 41 38 32
0.150 0.050 0.503 -0.044 0.029 -0.999 41 38 32
0.150 0.045 0.570 -0.064 -0.838 0.542 67 61 54
0.150 0.050 0.578 0.100 -0.287 0.953 52 48 40
0.150 0.050 0.582 -0.224 0.112 -0.968 52 48 40
0.150 0.060 0.004 -0.020 0.012 -1.000 25 48 109
0.150 0.055 0.390 -0.004 0.928 0.373 134 88 26
0.150 0.060 0.385 -0.000 0.286 0.958 134 88 26
0.150 0.060 0.397 0.012 0.524 -0.852 134 90 27
0.149 0.060 0.500 0.672 -0.153 0.724 41 38 32
0.150 0.060 0.499 -0.010 -0.364 0.931 41 38 32
0.150 0.055 0.510 0.110 0.819 -0.563 54 49 43
0.145 0.060 0.510 0.971 -0.133 -0.200 54 49 43
0.150 0.060 0.515 -0.102 0.125 -0.987 54 49 43
0.150 0.060 0.577 0.176 0.048 0.983 55 51 43
0.150 0.060 0.584 -0.197 0.101 -0.975 55 51 43
0.150 0.070 0.004 0.141 0.093 -0.986 24 48 107
0.150 0.070 0.385 0.010 -0.002 1.000 143 101 46
0.150 0.070 0.396 0.007 -0.002 -1.000 137 92 27
0.150 0.061 0.500 0.154 -0.720 0.676 41 38 32
0.150 0.070 0.507 0.119 -0.322 0.939 52 48 42
0.147 0.070 0.510 0.884 -0.467 0.000 52 48 42
0.150 0.070 0.513 -0.053 0.050 -0.997 52 48 42
0.150 0.070 0.576 0.111 0.327 0.938 69 63 56
0.150 0.070 0.585 -0.149 0.077 -0.986 69 63 56
0.150 0.080 0.005 0.019 0.035 -0.999 24 46 104
0.150 0.080 0.385 0.017 -0.008 1.000 124 81 24
0.150 0.080 0.396 0.037 -0.011 -0.999 133 90 26
0.149 0.080 0.510 0.733 0.004 0.681 52 48 42
0.150 0.080 0.509 0.477 -0.266 0.838 52 48 42
0.150 0.076 0.520 0.377 0.921 -0.096 63 60 55
0.146 0.080 0.520 0.978 0.153 0.145 63 60 55
0.145 0.080 0.530 0.937 0.348 0.019 54 52 46
0.150 0.075 0.530 0.256 0.966 0.024 54 52 46
0.145 0.080 0.540 0.914 0.405 0.005 44 40 36
0.150 0.075 0.540 0.244 0.970 0.003 44 40 36
0.145 0.080 0.550 0.964 0.265 -0.014 52 48 44
0.150 0.075 0.550 0.239 0.971 -0.010 52 48 44
0.146 0.080 0.560 0.918 0.396 -0.013 77 78 78
0.150 0.076 0.560 0.310 0.951 -0.019 77 78 78
0.146 0.080 0.570 0.871 0.324 0.369 78 78 77
0.150 0.076 0.570 0.425 0.896 0.127 78 78 77
0.150 0.080 0.585 -0.006 0.036 -0.999 49 50 66
0.150 0.090 0.005 -0.003 -0.051 -0.999 23 44 99
0.150 0.090 0.385 0.191 0.219 0.957 86 59 35
0.150 0.090 0.397 -0.063 0.023 -0.998 132 87 26
0.150 0.082 0.510 0.681 -0.381 0.625 52 48 42
0.150 0.090 0.515 0.578 -0.241 0.780 50 39 32
0.147 0.090 0.520 0.775 -0.262 0.576 50 45 40
0.146 0.090 0.550 0.464 0.879 0.109 47 43 38
0.146 0.090 0.580 0.798 0.214 -0.563 67 61 53
0.150 0.090 0.586 0.369 -0.059 -0.927 55 50 56
0.150 0.100 0.004 -0.063 -0.035 -0.997 20 40 93
0.145 0.100 0.310 0.897 0.402 0.186 41 35 35
0.150 0.095 0.310 0.363 0.854 0.373 41 35 35
0.150 0.100 0.305 0.413 0.357 0.838 41 35 35
0.145 0.100 0.320 0.901 0.433 0.003 69 67 66
0.150 0.095 0.320 0.288 0.958 -0.002 69 67 66
0.145 0.100 0.330 0.903 0.429 -0.003 65 64 62
0.150 0.095 0.330 0.415 0.910 0.004 65 64 62
0.145 0.100 0.340 0.906 0.423 0.003 84 82 81
0.150 0.095 0.340 0.416 0.909 -0.003 84 82 81
0.145 0.100 0.350 0.911 0.412 -0.017 69 66 62
0.150 0.095 0.350 0.412 0.911 -0.004 69 66 62
0.146 0.100 0.360 0.849 0.374 -0.373 44 42 42
0.150 0.096 0.360 0.595 0.742 -0.308 44 42 42
0.150 0.100 0.364 0.365 0.331 -0.870 44 42 42
0.145 0.100 0.380 0.628 0.172 0.759 115 98 78
0.150 0.095 0.380 0.439 0.608 0.662 115 98 78
0.150 0.100 0.375 0.381 0.326 0.865 115 98 78
0.150 0.100 0.397 -0.159 -0.197 -0.967 125 82 26
0.150 0.097 0.520 -0.124 -0.913 0.389 54 40 28
0.150 0.097 0.530 0.289 -0.939 0.185 47 39 30
0.147 0.100 0.530 -0.349 -0.761 0.548 47 39 30
0.150 0.100 0.535 -0.473 -0.706 0.527 36 33 28
0.146 0.100 0.570 0.756 -0.478 -0.448 31 29 24
0.146 0.100 0.580 0.640 -0.552 -0.535 60 54 47
0.150 0.100 0.582 0.099 -0.299 -0.949 60 54 47
0.150 0.110 0.004 0.027 -0.068 -0.997 18 36 80
0.150 0.105 0.300 0.319 0.657 0.683 67 48 27
0.150 0.110 0.295 -0.006 0.401 0.916 67 48 27
0.150 0.106 0.370 -0.158 0.972 -0.174 47 39 36
0.150 0.110 0.394 -0.339 -0.423 -0.840 91 73 56
0.150 0.103 0.540 -0.455 -0.847 0.276 36 33 28
0.143 0.110 0.540 -0.728 -0.671 0.140 52 47 42
0.150 0.102 0.550 -0.497 -0.867 0.038 32 28 24
0.143 0.110 0.550 -0.728 -0.683 -0.057 50 46 40
0.150 0.105 0.560 -0.444 -0.895 0.034 34 30 26
0.141 0.110 0.560 -0.696 -0.699 -0.167 52 46 42
0.150 0.102 0.570 -0.458 -0.887 0.062 31 29 24
0.150 0.105 0.580 0.056 -0.561 -0.826 51 47 40
0.150 0.120 0.002 0.002 -0.018 -1.000 15 31 67
0.147 0.120 0.140 0.239 0.110 0.965 36 24 14
0.150 0.120 0.142 0.019 0.222 0.975 36 24 14
0.150 0.115 0.150 -0.129 0.943 0.306 25 15 11
0.145 0.120 0.150 0.850 0.526 -0.027 25 15 11
0.145 0.120 0.160 0.910 0.415 -0.008 91 60 18
0.150 0.115 0.160 0.440 0.898 -0.001 91 60 18
0.146 0.120 0.170 0.911 0.412 0.000 95 64 20
0.150 0.116 0.170 0.309 0.951 -0.007 95 64 20
0.145 0.120 0.180 0.919 0.394 0.017 43 31 11
0.150 0.115 0.180 0.431 0.902 0.014 43 31 11
0.145 0.120 0.190 0.918 0.396 0.004 98 64 20
0.150 0.115 0.190 0.229 0.973 0.008 98 64 20
0.145 0.120 0.200 0.919 0.394 -0.004 100 66 20
0.150 0.115 0.200 0.282 0.959 -0.004 100 66 20
0.145 0.120 0.210 0.916 0.401 0.009 100 67 22
0.150 0.115 0.210 0.420 0.908 0.003 100 67 22
0.145 0.120 0.220 0.926 0.377 -0.017 74 42 12
0.150 0.115 0.220 0.230 0.973 -0.010 74 42 12
0.146 0.120 0.230 0.910 0.415 -0.006 68 39 15
0.150 0.116 0.230 0.301 0.953 -0.019 68 39 15
0.145 0.120 0.240 0.913 0.407 0.009 53 25 6
0.150 0.115 0.240 0.436 0.900 0.009 53 25 6
0.145 0.120 0.250 0.920 0.393 -0.017 86 53 15
0.150 0.115 0.250 0.248 0.969 -0.011 86 53 15
0.146 0.120 0.260 0.909 0.416 -0.004 66 32 7
0.150 0.116 0.260 0.315 0.949 -0.016 66 32 7
0.146 0.120 0.270 0.911 0.411 0.022 72 37 10
0.150 0.116 0.270 0.444 0.896 0.015 72 37 10
0.145 0.120 0.280 0.920 0.393 0.003 98 62 20
0.150 0.115 0.280 0.433 0.901 0.011 98 62 20
0.145 0.120 0.290 0.892 0.302 0.336 102 65 26
0.150 0.115 0.290 0.212 0.938 0.273 102 65 26
0.147 0.120 0.370 -0.821 -0.571 0.008 66 54 39
0.150 0.120 0.365 -0.609 -0.664 -0.434 75 64 56
0.150 0.118 0.370 -0.657 -0.752 0.054 66 54 39
0.150 0.120 0.377 -0.562 -0.773 0.296 66 62 58
0.145 0.120 0.390 -0.371 -0.565 -0.737 113 84 53
0.150 0.120 0.382 -0.492 -0.779 -0.388 66 62 58
0.150 0.115 0.390 -0.425 -0.623 -0.657 93 74 51
0.150 0.130 0.003 0.001 0.072 -0.997 14 30 64
0.150 0.130 0.147 -0.251 -0.401 0.881 31 18 12
0.142 0.130 0.310 -0.523 -0.535 -0.664 67 54 41
0.150 0.130 0.307 -0.271 -0.315 -0.909 57 43 31
0.150 0.121 0.310 -0.670 -0.584 -0.458 67 60 52
0.150 0.123 0.320 -0.475 -0.879 0.046 62 61 59
0.150 0.123 0.330 -0.360 -0.931 0.063 62 51 37
0.150 0.124 0.340 -0.349 -0.936 0.051 67 58 45
0.150 0.124 0.350 -0.357 -0.934 -0.019 72 61 52
0.150 0.123 0.360 -0.523 -0.816 -0.246 75 64 56
0.150 0.121 0.380 -0.523 -0.852 0.003 66 62 58
0.150 0.140 0.004 -0.027 -0.098 -0.995 13 29 62
0.150 0.134 0.150 -0.330 -0.816 0.474 31 18 12
0.150 0.136 0.160 -0.352 -0.913 0.208 42 28 19
0.145 0.140 0.160 -0.553 -0.807 0.208 64 37 14
0.150 0.137 0.170 -0.492 -0.870 0.028 73 47 18
0.145 0.140 0.170 -0.532 -0.846 -0.035 79 48 16
0.150 0.137 0.180 -0.591 -0.806 0.031 79 52 17
0.144 0.140 0.180 -0.522 -0.843 0.128 62 40 13
0.150 0.138 0.190 -0.566 -0.821 0.068 89 60 20
0.147 0.140 0.190 -0.513 -0.858 0.035 89 60 20
0.150 0.138 0.200 -0.563 -0.824 -0.061 100 67 20
0.147 0.140 0.200 -0.560 -0.823 -0.098 100 67 20
0.150 0.136 0.210 -0.552 -0.830 -0.085 96 62 19
0.145 0.140 0.210 -0.664 -0.746 -0.047 96 63 18
0.150 0.136 0.220 -0.473 -0.881 0.007 100 66 20
0.145 0.140 0.220 -0.659 -0.751 -0.027 99 66 22
0.150 0.136 0.230 -0.476 -0.877 0.057 100 67 20
0.144 0.140 0.230 -0.609 -0.790 0.074 99 67 21
0.150 0.138 0.240 -0.499 -0.864 0.059 80 50 19
0.147 0.140 0.240 -0.589 -0.806 0.059 80 50 19
0.150 0.138 0.250 -0.503 -0.864 -0.019 92 60 19
0.147 0.140 0.250 -0.590 -0.807 -0.021 92 60 19
0.150 0.137 0.260 -0.540 -0.842 0.013 89 56 19
0.146 0.140 0.260 -0.603 -0.797 0.026 89 56 19
0.150 0.138 0.270 -0.554 -0.830 0.063 103 67 18
0.147 0.140 0.270 -0.601 -0.796 0.077 103 67 18
0.150 0.139 0.280 -0.467 -0.877 -0.113 103 69 21
0.149 0.140 0.280 -0.587 -0.793 -0.164 103 69 21
0.150 0.136 0.290 -0.448 -0.893 -0.047 107 70 21
0.145 0.140 0.290 -0.737 -0.676 -0.010 102 66 18
0.150 0.137 0.300 -0.394 -0.878 -0.272 116 77 25
0.146 0.140 0.300 -0.662 -0.652 -0.370 116 77 25
0.150 0.150 0.000 0.004 0.128 -0.992 14 28 59
0.150 0.160 0.003 0.064 0.099 -0.993 16 28 59
0.150 0.170 0.004 -0.008 -0.068 -0.998 17 27 59
0.150 0.180 0.001 -0.090 0.114 -0.989 16 26 57
0.150 0.190 0.002 0.001 0.021 -1.000 16 25 54
0.150 0.200 0.003 -0.000 0.060 -0.998 14 24 49
0.150 0.210 0.004 -0.005 -0.027 -1.000 13 22 45
0.150 0.220 0.003 -0.003 -0.035 -0.999 12 20 43
0.150 0.230 0.003 0.083 0.078 -0.993 11 20 41
0.150 0.240 0.004 0.052 0.061 -0.997 11 19 40
0.150 0.250 0.004 0.006 -0.047 -0.999 11 18 40
0.150 0.260 0.003 -0.017 -0.025 -1.000 10 18 40
0.150 0.270 0.004 -0.029 0.089 -0.996 11 20 40
0.150 0.280 0.004 -0.014 -0.002 -1.000 11 20 41
0.150 0.290 0.004 -0.050 -0.003 -0.999 11 20 41
0.150 0.300 0.004 0.002 -0.043 -0.999 10 20 42
0.150 0.310 0.003 -0.018 0.036 -0.999 10 20 42
0.150 0.320 0.004 -0.049 -0.005 -0.999 9 20 40
0.150 0.330 0.004 -0.034 0.023 -0.999 9 20 40
0.150 0.340 0.004 0.045 0.002 -0.999 9 18 38
0.150 0.350 0.004 0.001 -0.042 -0.999 9 18 36
0.150 0.360 0.004 -0.034 -0.004 -0.999 9 17 36
0.150 0.370 0.004 0.068 -0.021 -0.997 9 16 34
0.150 0.380 0.003 0.011 -0.011 -1.000 10 16 32
0.150 0.390 0.003 0.012 0.007 -1.000 8 15 32
0.150 0.400 0.003 -0.047 0.019 -0.999 8 14 31
0.150 0.410 0.003 0.028 -0.019 -0.999 8 14 29
0.150 0.420 0.004 -0.012 0.058 -0.998 7 13 29
0.150 0.430 0.004 0.007 -0.057 -0.998 6 13 28
0.150 0.440 0.003 -0.013 0.011 -1.000 6 13 28
0.150 0.450 0.003 0.036 0.011 -0.999 6 13 28
0.150 0.460 0.004 -0.022 0.029 -0.999 6 13 28
0.150 0.470 0.004 0.001 -0.020 -1.000 6 13 28
0.150 0.480 0.003 -0.030 -0.036 -0.999 5 12 28
0.150 0.490 0.003 0.004 -0.024 -1.000 4 12 28
0.150 0.500 0.003 -0.037 0.074 -0.997 4 13 28
0.150 0.510 0.003 -0.009 -0.035 -0.999 4 14 30
0.150 0.520 0.003 -0.027 0.035 -0.999 4 14 30
0.150 0.530 0.003 0.019 -0.027 -0.999 7 15 32
0.150 0.540 0.002 0.023 0.011 -1.000 9 16 33
0.150 0.550 0.003 0.016 0.066 -0.998 9 16 34
0.150 0.560 0.003 -0.010 -0.035 -0.999 8 15 34
0.150 0.570 0.003 -0.041 -0.018 -0.999 8 16 34
0.150 0.580 0.003 0.026 0.046 -0.999 8 16 36
0.150 0.590 0.003 -0.018 0.018 -1.000 8 16 36
0.150 0.600 0.003 0.019 -0.048 -0.999 7 15 36
0.150 0.610 0.003 -0.048 0.050 -0.998 6 16 37
0.150 0.620 0.004 0.037 0.025 -0.999 6 16 38
0.150 0.630 0.003 0.031 0.020 -0.999 6 15 39
0.150 0.640 0.004 -0.007 -0.018 -1.000 6 16 40
0.150 0.650 0.003 -0.013 -0.060 -0.998 8 17 42
0.150 0.660 0.002 -0.018 -0.006 -1.000 10 20 45
0.150 0.670 0.003 0.027 0.048 -0.998 12 23 51
0.150 0.680 0.004 -0.062 -0.001 -0.998 16 27 56
0.150 0.690 0.003 0.001 0.023 -1.000 19 28 59
0.150 0.700 0.003 0.026 -0.012 -1.000 19 29 59
0.150 0.710 0.003 -0.043 0.024 -0.999 18 30 58
0.150 0.720 0.003 0.012 -0.010 -1.000 17 30 55
0.150 0.730 0.004 -0.025 0.028 -0.999 14 28 52
0.150 0.740 0.003 -0.066 0.011 -0.998 11 26 47
0.160 -0.750 0.004 0.053 -0.059 -0.997 43 75 169
0.160 -0.740 0.003 -0.058 -0.106 -0.993 50 84 188
0.160 -0.730 0.001 -0.033 0.105 -0.994 55 91 199
0.160 -0.720 0.003 0.044 0.109 -0.993 51 90 196
0.160 -0.710 0.003 -0.054 -0.005 -0.999 48 86 188
0.160 -0.700 0.004 0.071 -0.001 -0.997 38 75 171
0.160 -0.690 0.003 -0.035 -0.076 -0.997 29 64 156
0.160 -0.680 0.002 -0.006 0.016 -1.000 26 60 147
0.160 -0.670 0.003 -0.022 -0.032 -0.999 27 57 136
0.160 -0.660 0.002 0.006 0.154 -0.988 28 55 128
0.160 -0.650 0.004 0.042 0.012 -0.999 27 51 117
0.160 -0.640 0.003 -0.049 0.012 -0.999 25 49 109
0.160 -0.630 0.004 0.005 -0.035 -0.999 23 48 110
0.160 -0.620 0.003 -0.095 0.002 -0.995 24 48 116
0.160 -0.610 0.002 0.051 0.105 -0.993 26 51 127
0.160 -0.600 0.004 -0.033 0.051 -0.998 34 62 145
0.160 -0.590 0.004 0.019 -0.037 -0.999 39 69 157
0.160 -0.580 0.004 -0.003 -0.024 -1.000 42 74 163
0.160 -0.570 0.003 0.011 -0.042 -0.999 41 74 162
0.160 -0.560 0.003 0.042 -0.009 -0.999 37 70 158
0.160 -0.550 0.003 -0.027 0.120 -0.992 32 63 150
0.160 -0.540 0.004 -0.015 0.022 -1.000 30 60 144
0.160 -0.530 0.004 0.019 -0.030 -0.999 30 59 142
0.160 -0.520 0.003 -0.012 -0.047 -0.999 32 59 139
0.160 -0.510 0.003 -0.014 -0.083 -0.996 33 61 142
0.160 -0.500 0.002 0.011 0.026 -1.000 34 63 144
0.160 -0.490 0.004 0.026 0.097 -0.995 34 62 142
0.160 -0.480 0.004 0.055 -0.044 -0.998 33 63 140
0.160 -0.470 0.003 -0.049 -0.012 -0.999 33 62 138
0.160 -0.460 0.003 -0.012 -0.050 -0.999 30 58 132
0.160 -0.450 0.002 -0.000 0.121 -0.993 25 53 128
0.160 -0.440 0.004 0.013 0.045 -0.999 23 50 123
0.160 -0.430 0.003 0.029 -0.041 -0.999 21 46 120
0.160 -0.420 0.003 -0.061 0.000 -0.998 19 44 118
0.160 -0.410 0.003 0.025 -0.005 -1.000 19 44 119
0.160 -0.400 0.003 0.004 -0.031 -0.999 23 49 126
0.160 -0.390 0.003 0.001 0.063 -0.998 28 56 135
0.160 -0.380 0.004 0.008 0.032 -0.999 34 65 147
0.160 -0.370 0.004 -0.012 -0.038 -0.999 38 69 155
0.160 -0.360 0.003 -0.008 -0.052 -0.999 38 70 158
0.160 -0.350 0.003 0.023 -0.055 -0.998 36 68 157
0.160 -0.340 0.002 -0.028 0.109 -0.994 32 66 155
0.160 -0.330 0.004 0.015 0.038 -0.999 30 63 154
0.160 -0.320 0.003 0.015 -0.021 -1.000 26 61 149
0.160 -0.310 0.004 -0.030 -0.041 -0.999 26 62 148
0.160 -0.300 0.002 0.039 -0.040 -0.998 28 63 150
0.160 -0.290 0.002 -0.008 0.100 -0.995 31 68 155
0.160 -0.280 0.004 0.026 0.096 -0.995 34 70 162
0.160 -0.270 0.004 0.059 -0.042 -0.997 38 75 170
0.160 -0.260 0.003 -0.048 -0.053 -0.997 42 80 175
0.160 -0.250 0.003 0.005 0.056 -0.998 50 89 184
0.160 -0.240 0.004 -0.003 0.083 -0.997 56 94 188
0.160 -0.230 0.006 0.033 0.028 -0.999 59 93 174
0.153 -0.230 0.060 0.443 0.754 0.485 24 19 15
0.160 -0.235 0.060 0.536 0.765 0.357 23 17 14
0.160 -0.230 0.053 0.534 0.677 0.507 26 28 42
0.160 -0.238 0.070 0.600 0.788 0.140 30 31 42
0.160 -0.238 0.080 0.725 0.688 -0.016 40 31 26
0.160 -0.239 0.090 0.575 0.818 -0.014 29 24 20
0.160 -0.237 0.100 0.615 0.668 -0.420 31 25 21
0.160 -0.230 0.104 0.310 0.322 -0.895 34 29 24
0.160 -0.220 0.004 0.022 -0.080 -0.997 57 90 171
0.152 -0.220 0.040 0.465 0.536 0.705 28 30 45
0.160 -0.227 0.040 0.346 0.793 0.501 29 33 49
0.160 -0.220 0.036 0.198 0.081 0.977 49 34 22
0.160 -0.228 0.050 0.490 0.824 0.286 26 28 42
0.160 -0.220 0.107 0.240 0.427 -0.872 39 26 20
0.160 -0.223 0.120 0.744 0.658 -0.116 41 33 28
0.160 -0.220 0.116 0.234 0.770 0.593 41 33 28
0.160 -0.220 0.124 0.337 0.673 -0.659 41 33 28
0.160 -0.210 0.004 -0.051 -0.016 -0.999 48 77 153
0.153 -0.210 0.030 0.790 0.417 0.450 53 57 86
0.160 -0.215 0.030 -0.153 0.773 0.616 44 48 72
0.160 -0.210 0.025 0.169 0.269 0.948 46 74 149
0.160 -0.210 0.035 -0.024 -0.113 -0.993 19 15 13
0.160 -0.216 0.040 0.311 -0.948 0.069 49 34 22
0.153 -0.210 0.040 -0.891 -0.431 0.140 42 38 37
0.154 -0.210 0.050 -0.810 -0.438 -0.390 54 37 33
0.160 -0.216 0.050 -0.316 -0.948 0.022 27 22 18
0.160 -0.215 0.060 -0.453 -0.891 0.041 19 13 11
0.160 -0.215 0.070 -0.159 -0.987 0.011 64 46 36
0.155 -0.210 0.070 -0.652 -0.740 -0.166 37 30 26
0.160 -0.215 0.080 -0.352 -0.933 0.070 30 22 18
0.160 -0.212 0.090 -0.489 -0.766 0.418 41 19 11
0.160 -0.210 0.094 -0.563 -0.259 0.784 41 19 11
0.160 -0.218 0.110 0.186 0.928 -0.323 39 26 20
0.160 -0.215 0.130 0.430 0.621 -0.655 37 28 24
0.160 -0.210 0.134 0.276 0.427 -0.861 37 28 24
0.160 -0.200 0.004 -0.013 0.160 -0.987 37 64 136
0.155 -0.200 0.020 0.152 0.588 0.794 58 40 24
0.160 -0.203 0.020 -0.295 0.254 0.921 58 40 24
0.160 -0.200 0.016 0.225 0.438 0.871 58 40 24
0.160 -0.200 0.030 -0.240 -0.346 -0.907 38 34 29
0.154 -0.200 0.050 -0.899 -0.119 0.423 75 60 55
0.155 -0.200 0.060 -0.985 -0.134 0.111 85 76 73
0.160 -0.200 0.067 -0.493 0.121 0.862 76 69 66
0.160 -0.203 0.070 -0.359 0.890 0.281 76 69 66
0.160 -0.204 0.080 -0.188 0.980 -0.067 82 75 72
0.158 -0.200 0.090 -0.052 0.976 -0.209 38 14 5
0.160 -0.200 0.089 0.090 0.792 -0.604 38 14 5
0.160 -0.200 0.091 -0.595 0.193 0.781 38 14 5
0.153 -0.200 0.110 -0.986 -0.133 0.103 60 53 52
0.160 -0.200 0.103 -0.381 -0.338 -0.860 60 48 43
0.160 -0.206 0.110 -0.025 -0.995 0.095 39 31 27
0.160 -0.200 0.116 -0.128 -0.468 0.874 47 37 33
0.160 -0.204 0.140 0.471 0.725 -0.503 40 28 22
0.160 -0.200 0.147 0.225 0.778 -0.587 46 36 30
0.160 -0.192 0.010 -0.691 0.681 0.243 30 41 75
0.158 -0.190 0.010 0.824 -0.366 0.433 30 41 75
0.160 -0.200 0.030 -0.453 -0.701 -0.550 38 34 29
0.154 -0.190 0.030 -0.350 0.889 0.295 38 33 29
0.160 -0.190 0.024 -0.271 0.068 -0.960 40 33 27
0.160 -0.195 0.040 -0.492 0.711 -0.503 83 77 73
0.160 -0.190 0.035 -0.131 0.141 0.981 83 77 73
0.152 -0.190 0.050 -0.809 -0.086 -0.582 82 72 69
0.160 -0.190 0.045 -0.175 0.046 -0.983 83 77 73
0.160 -0.190 0.068 -0.051 -0.035 0.998 80 70 67
0.157 -0.190 0.070 0.682 -0.334 0.650 80 70 67
0.155 -0.190 0.080 0.884 -0.440 0.160 55 45 44
0.160 -0.199 0.090 -0.419 0.877 -0.235 38 14 5
0.154 -0.190 0.090 0.717 -0.649 0.257 66 62 59
0.160 -0.190 0.103 -0.373 -0.433 -0.820 56 35 30
0.160 -0.196 0.120 -0.129 -0.760 0.637 47 37 33
0.154 -0.190 0.120 -0.901 -0.261 0.346 79 77 77
0.160 -0.190 0.126 -0.236 -0.226 0.945 54 48 45
0.160 -0.197 0.150 0.343 0.704 -0.621 46 36 30
0.160 -0.190 0.156 0.337 0.477 -0.811 45 35 31
0.160 -0.180 0.003 -0.042 -0.109 -0.993 18 43 106
0.160 -0.189 0.010 -0.216 -0.956 0.196 30 41 75
0.160 -0.180 0.016 -0.086 -0.295 0.952 46 36 32
0.160 -0.184 0.030 -0.405 0.754 -0.518 63 39 32
0.160 -0.183 0.040 -0.007 0.046 -0.999 58 47 42
0.154 -0.180 0.040 -0.289 -0.420 -0.860 76 66 62
0.160 -0.180 0.036 -0.193 0.144 -0.970 58 47 42
0.158 -0.180 0.070 0.608 -0.362 0.707 62 47 42
0.160 -0.180 0.068 0.435 -0.143 0.889 62 47 42
0.158 -0.180 0.080 0.924 -0.380 -0.045 65 53 48
0.159 -0.180 0.090 0.348 -0.536 -0.769 74 58 55
0.160 -0.188 0.100 -0.416 -0.850 -0.323 56 35 30
0.160 -0.180 0.091 -0.025 -0.406 -0.914 74 58 55
0.160 -0.180 0.126 -0.361 -0.112 0.926 52 40 38
0.160 -0.186 0.160 0.328 0.813 -0.480 45 35 31
0.154 -0.180 0.160 0.713 0.619 -0.329 44 35 32
0.157 -0.180 0.170 0.658 0.388 -0.645 46 33 27
0.160 -0.182 0.170 0.517 0.665 -0.539 46 33 27
0.160 -0.180 0.172 0.382 0.296 -0.875 46 33 27
0.160 -0.174 0.010 -0.345 0.910 -0.230 38 29 25
0.153 -0.170 0.020 0.933 0.250 -0.260 38 29 24
0.160 -0.170 0.034 0.321 -0.286 -0.903 82 74 70
0.160 -0.177 0.070 0.734 -0.493 0.467 62 47 42
0.160 -0.178 0.080 0.745 -0.666 0.035 65 53 48
0.160 -0.170 0.089 0.748 -0.503 0.433 66 48 44
0.160 -0.170 0.090 0.780 -0.448 0.438 66 48 44
0.160 -0.170 0.100 0.793 0.583 -0.178 72 49 43
0.159 -0.170 0.100 0.940 -0.322 -0.110 72 49 43
0.160 -0.170 0.101 0.795 0.461 -0.394 72 49 43
0.160 -0.176 0.130 -0.303 -0.710 0.636 52 40 38
0.160 -0.170 0.135 0.225 -0.243 0.944 63 50 45
0.160 -0.170 0.174 0.385 0.098 -0.918 41 32 26
0.157 -0.160 0.020 0.639 -0.353 -0.684 16 13 10
0.160 -0.161 0.030 0.764 -0.294 -0.574 82 69 65
0.160 -0.160 0.028 0.844 -0.466 -0.266 82 69 65
0.160 -0.169 0.090 0.732 -0.666 0.142 66 48 44
0.160 -0.170 0.100 0.554 -0.818 -0.156 72 49 43
0.160 -0.160 0.136 -0.005 -0.036 0.999 64 52 48
0.160 -0.160 0.144 0.117 -0.315 -0.942 64 52 48
0.160 -0.167 0.150 -0.314 -0.917 -0.246 59 46 40
0.160 -0.165 0.160 0.051 -0.965 0.259 41 46 68
0.157 -0.160 0.160 -0.684 -0.680 0.264 41 46 68
0.160 -0.164 0.170 -0.454 -0.884 0.109 44 37 34
0.157 -0.160 0.170 -0.716 0.586 0.379 44 37 34
0.160 -0.164 0.180 0.680 0.724 -0.116 40 31 27
0.160 -0.160 0.174 0.034 0.465 0.885 44 37 34
0.158 -0.160 0.190 0.308 0.540 -0.783 36 27 23
0.160 -0.162 0.190 0.409 0.757 -0.510 36 27 23
0.160 -0.160 0.191 0.427 0.187 -0.885 36 27 23
0.160 -0.150 0.018 0.222 -0.118 -0.968 52 44 42
0.160 -0.157 0.020 0.684 -0.427 -0.591 16 13 10
0.156 -0.150 0.140 0.966 0.146 0.212 86 76 75
0.160 -0.150 0.136 0.300 0.031 0.953 86 76 75
0.160 -0.150 0.146 0.641 0.074 -0.764 48 56 92
0.160 -0.150 0.170 -0.372 -0.598 0.710 28 20 18
0.160 -0.150 0.170 -0.610 0.023 0.792 28 20 18
0.160 -0.150 0.194 0.220 0.174 -0.960 39 31 26
0.156 -0.140 0.010 0.951 -0.120 -0.285 32 24 21
0.160 -0.140 0.017 0.680 -0.186 -0.709 44 38 33
0.156 -0.140 0.140 0.817 -0.531 0.226 85 80 77
0.160 -0.140 0.136 0.098 -0.241 0.966 85 80 77
0.160 -0.140 0.144 0.325 -0.251 -0.912 85 80 77
0.160 -0.140 0.175 -0.060 -0.270 0.961 37 29 25
0.151 -0.140 0.180 0.377 -0.803 0.461 48 36 34
0.154 -0.140 0.190 0.647 -0.675 -0.354 41 30 25
0.160 -0.140 0.188 -0.625 -0.173 -0.761 50 36 23
0.160 -0.143 0.190 0.411 0.786 -0.461 50 36 23
0.154 -0.144 0.193 0.166 -0.130 -0.978 41 30 25
0.160 -0.145 0.200 0.196 0.956 -0.219 32 24 19
0.154 -0.140 0.200 0.942 0.057 -0.330 63 50 39
0.160 -0.140 0.192 0.059 0.179 0.982 50 36 23
0.159 -0.140 0.210 0.665 0.383 -0.641 31 25 22
0.160 -0.143 0.210 0.559 0.587 -0.586 31 25 22
0.160 -0.140 0.211 0.511 0.150 -0.846 31 25 22
0.157 -0.130 0.010 0.791 -0.574 -0.214 31 21 17
0.160 -0.130 0.016 0.692 -0.404 -0.598 43 35 30
0.160 -0.136 0.140 0.189 -0.932 -0.311 85 80 77
0.160 -0.135 0.180 0.169 -0.981 -0.098 37 29 25
0.152 -0.130 0.200 0.497 -0.759 0.422 58 40 22
0.160 -0.130 0.197 0.463 -0.435 0.772 54 39 32
0.156 -0.130 0.210 0.845 -0.369 -0.386 37 30 25
0.160 -0.130 0.214 0.491 -0.019 -0.871 37 30 25
0.160 -0.120 0.001 -0.012 -0.350 -0.937 28 55 125
0.160 -0.127 0.010 0.410 -0.891 -0.197 31 21 17
0.160 -0.127 0.200 0.277 -0.886 0.371 54 39 32
0.160 -0.127 0.210 0.381 -0.921 -0.086 37 30 25
0.160 -0.120 0.217 0.374 0.022 0.927 46 30 19
0.155 -0.120 0.220 0.884 0.461 -0.076 66 44 14
0.160 -0.124 0.220 1.000 -0.003 -0.003 46 30 19
0.160 -0.120 0.225 0.404 0.403 -0.821 46 30 19
0.151 -0.120 0.400 -0.893 0.378 -0.246 47 38 29
0.160 -0.110 0.003 0.108 0.024 -0.994 39 65 139
0.152 -0.110 0.150 -0.875 -0.483 0.000 44 30 16
0.153 -0.110 0.180 -0.886 0.215 0.411 71 47 15
0.152 -0.110 0.200 -0.978 -0.208 0.027 64 42 14
0.160 -0.110 0.215 0.001 0.045 0.999 58 40 27
0.160 -0.110 0.229 0.263 0.131 -0.956 66 44 18
0.155 -0.110 0.230 -0.294 0.784 -0.547 66 44 18
0.156 -0.110 0.240 -0.780 0.606 -0.157 60 41 18
0.152 -0.110 0.250 -0.765 0.634 -0.115 79 51 16
0.153 -0.110 0.260 -0.880 0.476 0.005 60 32 11
0.152 -0.110 0.270 -0.832 0.545 -0.098 55 33 14
0.150 -0.110 0.280 -0.803 0.589 -0.094 68 46 14
0.150 -0.110 0.290 -0.774 0.633 -0.004 69 45 14
0.150 -0.110 0.300 -0.838 0.545 0.022 72 48 14
0.151 -0.110 0.310 -0.903 0.419 -0.093 55 32 13
0.153 -0.110 0.380 -0.853 0.488 0.184 76 52 20
0.154 -0.110 0.390 -0.903 0.412 0.119 30 22 18
0.155 -0.110 0.400 -0.701 0.327 -0.634 46 37 34
0.160 -0.100 0.003 0.014 0.068 -0.998 39 67 140
0.160 -0.100 0.149 0.000 -0.339 0.941 46 29 14
0.159 -0.100 0.150 0.758 -0.652 0.000 46 29 14
0.160 -0.101 0.150 0.088 0.996 0.000 46 29 14
0.160 -0.100 0.151 0.100 -0.337 -0.936 46 29 14
0.155 -0.100 0.170 -0.947 -0.255 0.196 68 45 15
0.155 -0.100 0.180 -0.849 -0.275 -0.450 71 47 15
0.158 -0.100 0.210 -0.747 0.423 0.513 75 50 15
0.160 -0.100 0.216 -0.917 0.320 0.238 70 46 15
0.156 -0.100 0.230 -0.961 0.241 -0.134 72 48 14
0.160 -0.100 0.222 -0.897 0.031 -0.441 70 46 15
0.159 -0.100 0.240 -0.908 0.348 0.234 74 50 16
0.160 -0.100 0.246 -0.925 0.355 0.132 82 54 18
0.160 -0.101 0.250 -0.946 0.323 -0.041 82 54 18
0.158 -0.100 0.260 -0.806 0.581 -0.113 73 44 13
0.160 -0.100 0.253 -0.866 0.438 -0.242 82 54 18
0.159 -0.100 0.270 -0.864 0.503 0.034 58 28 10
0.159 -0.100 0.280 -0.833 0.552 0.038 61 38 13
0.159 -0.100 0.290 -0.738 0.674 0.031 67 44 14
0.160 -0.100 0.299 -0.771 0.633 0.076 68 44 14
0.160 -0.100 0.300 -0.793 0.560 -0.239 68 44 14
0.156 -0.100 0.310 -0.917 0.276 -0.287 62 38 11
0.160 -0.100 0.300 -0.708 0.549 -0.445 68 44 14
0.153 -0.100 0.320 -0.883 0.427 -0.195 44 38 36
0.152 -0.100 0.330 -0.873 0.458 -0.167 47 40 38
0.160 -0.102 0.340 -0.253 0.741 0.622 30 20 12
0.160 -0.100 0.338 -0.051 0.346 0.937 30 20 12
0.156 -0.100 0.340 0.359 0.828 0.430 30 20 12
0.160 -0.104 0.350 0.088 0.971 -0.224 48 28 17
0.156 -0.100 0.360 -0.485 0.845 -0.225 48 36 24
0.160 -0.100 0.355 -0.316 0.513 -0.798 48 36 24
0.155 -0.100 0.370 -0.816 0.571 0.086 36 27 24
0.160 -0.100 0.378 -0.770 0.426 0.476 85 57 18
0.160 -0.101 0.380 -0.844 0.508 0.173 85 57 18
0.160 -0.101 0.390 -0.580 0.800 0.152 26 20 17
0.160 -0.104 0.400 -0.489 0.482 -0.727 47 39 34
0.160 -0.100 0.402 -0.139 0.061 -0.988 47 39 34
0.160 -0.090 0.003 0.071 -0.055 -0.996 44 71 144
0.160 -0.099 0.150 0.000 -1.000 0.000 46 29 14
0.157 -0.090 0.200 0.923 -0.239 0.301 74 49 15
0.160 -0.099 0.200 0.280 0.826 0.490 74 49 15
0.160 -0.090 0.197 0.000 -0.304 0.953 74 49 15
0.160 -0.098 0.210 -0.678 0.729 0.094 75 50 15
0.157 -0.090 0.210 0.892 -0.385 0.235 69 46 15
0.160 -0.096 0.230 -0.699 0.715 -0.011 72 48 14
0.160 -0.099 0.240 -0.878 0.457 0.138 74 50 16
0.160 -0.097 0.260 -0.799 0.601 -0.024 73 44 13
0.160 -0.098 0.270 -0.810 0.585 0.035 58 28 10
0.160 -0.099 0.280 -0.855 0.518 0.036 61 38 13
0.160 -0.099 0.290 -0.781 0.622 0.054 67 44 14
0.156 -0.090 0.300 0.932 -0.312 -0.184 62 39 12
0.160 -0.095 0.310 -0.400 0.869 -0.293 62 38 11
0.157 -0.090 0.310 0.892 0.386 0.236 63 38 11
0.160 -0.092 0.320 -0.072 0.932 -0.355 40 28 26
0.158 -0.090 0.330 -0.397 0.876 0.275 37 25 23
0.160 -0.090 0.325 -0.599 0.707 -0.375 40 28 26
0.160 -0.090 0.332 -0.567 0.387 0.727 37 25 23
0.160 -0.093 0.360 -0.755 0.633 -0.174 33 28 26
0.160 -0.094 0.370 -0.746 0.596 0.297 28 22 18
0.160 -0.090 0.402 -0.126 0.047 -0.991 49 44 40
0.160 -0.080 0.002 -0.005 -0.016 -1.000 38 64 136
0.160 -0.087 0.200 0.148 -0.929 0.340 74 49 15
0.160 -0.087 0.210 0.060 -0.998 0.007 69 46 15
0.160 -0.087 0.220 -0.098 -0.995 0.001 75 50 16
0.160 -0.087 0.230 -0.113 -0.969 0.218 76 50 16
0.156 -0.080 0.240 0.607 -0.705 0.367 80 52 16
0.160 -0.080 0.236 0.275 -0.454 0.847 80 52 16
0.156 -0.080 0.250 0.903 -0.429 0.009 84 56 16
0.156 -0.080 0.260 0.992 -0.130 0.009 71 42 13
0.156 -0.080 0.270 0.991 -0.134 0.005 55 26 8
0.156 -0.080 0.280 0.831 -0.538 -0.141 68 45 18
0.160 -0.080 0.284 0.186 -0.422 -0.887 68 45 18
0.160 -0.087 0.290 -0.306 -0.922 -0.237 67 44 14
0.160 -0.086 0.300 0.379 -0.896 0.230 62 39 12
0.160 -0.080 0.305 0.159 -0.351 0.923 78 44 14
0.155 -0.080 0.310 0.673 -0.581 0.457 78 44 14
0.155 -0.080 0.320 0.956 -0.244 0.162 40 29 27
0.160 -0.088 0.330 -0.715 0.692 0.106 37 25 23
0.160 -0.083 0.340 -0.988 -0.029 0.152 14 12 12
0.156 -0.080 0.340 -0.964 0.084 0.250 14 12 12
0.160 -0.080 0.336 -0.583 -0.066 -0.810 14 12 12
0.160 -0.080 0.344 -0.610 0.110 0.785 14 12 12
0.157 -0.080 0.370 0.950 0.145 -0.278 32 24 22
0.156 -0.080 0.380 0.883 -0.467 0.058 55 38 16
0.156 -0.080 0.390 0.992 -0.113 0.049 56 38 17
